ply
format ascii 1.0
element vertex 174
comment vertices
property float x
property float y
property float z
end_header
0.414854049682617188 1.65717720985412598 -0.621707797050476074
0.440778195858001709 1.78445827960968018 -0.575109183788299561
0.470569729804992676 1.73857057094573975 -0.773040711879730225
0.394912451505661011 1.7758643627166748 -0.815887093544006348
0.46879887580871582 1.66312563419342041 -0.708806514739990234
0.452588260173797607 1.81422054767608643 -0.595356523990631104
0.138924166560173035 1.71211540699005127 -0.4606495201587677
0.453014910221099854 1.78655314445495605 -0.630285918712615967
0.42493245005607605 1.82834804058074951 -0.744858980178833008
0.41404801607131958 1.71117901802062988 -0.583667397499084473
0.22263084352016449 1.68895113468170166 -0.492952466011047363
0.411503136157989502 1.65588963031768799 -0.581533908843994141
0.48643791675567627 1.69396328926086426 -0.735403656959533691
0.431422322988510132 1.78525459766387939 -0.539688348770141602
0.410856693983078003 1.74162554740905762 -0.498175770044326782
0.385362356901168823 1.74493324756622314 -0.461742967367172241
0.132494434714317322 1.97701752185821533 -0.390227079391479492
0.462661921977996826 1.74544048309326172 -0.699260294437408447
0.247308120131492615 1.66162514686584473 -0.415410161018371582
0.391027182340621948 1.80033242702484131 -0.807871460914611816
0.134031966328620911 1.7435077428817749 -0.471096575260162354
0.427340984344482422 1.73462295532226562 -0.603603363037109375
0.274518787860870361 1.79423606395721436 -0.682521283626556396
0.323171913623809814 1.72225713729858398 -0.793181240558624268
0.47211572527885437 1.67683899402618408 -0.645309746265411377
0.427099227905273438 1.68175792694091797 -0.568632841110229492
0.41980445384979248 1.7046276330947876 -0.552280724048614502
0.33333393931388855 1.72113847732543945 -0.407729804515838623
0.32065582275390625 1.71171009540557861 -0.391671150922775269
0.322223693132400513 2.00108790397644043 -0.689515590667724609
0.405215054750442505 1.68260049819946289 -0.58256077766418457
0.470216035842895508 1.71214377880096436 -0.716153919696807861
0.143348649144172668 1.9805152416229248 -0.394270598888397217
0.382002979516983032 1.67549800872802734 -0.548780381679534912
0.276034057140350342 1.7133026123046875 -0.37769809365272522
0.309682637453079224 1.92539668083190918 -0.669632315635681152
0.363785237073898315 1.650490403175354 -0.584284186363220215
0.346426635980606079 1.75378012657165527 -0.793831408023834229
0.418068528175354004 1.62910151481628418 -0.645103037357330322
0.484631359577178955 1.79780459403991699 -0.655084013938903809
0.450873047113418579 1.92912781238555908 -0.584176480770111084
0.146526873111724854 1.94056665897369385 -0.425862103700637817
0.451031327247619629 1.69024968147277832 -0.598044335842132568
0.442684471607208252 1.63488876819610596 -0.71694648265838623
0.280491143465042114 1.70430135726928711 -0.618800938129425049
0.475852489471435547 1.69021964073181152 -0.696943700313568115
0.480003386735916138 1.97910463809967041 -0.56943511962890625
0.464225143194198608 1.75340640544891357 -0.697049379348754883
0.39056086540222168 1.74392116069793701 -0.492310494184494019
0.3740730881690979 1.66506445407867432 -0.569909095764160156
0.340156763792037964 2.02877950668334961 -0.692170262336730957
0.492151468992233276 1.78134715557098389 -0.688585102558135986
0.254507273435592651 1.66301381587982178 -0.522403299808502197
0.449170947074890137 1.68082034587860107 -0.651206552982330322
0.379955321550369263 1.724578857421875 -0.470057189464569092
0.489004433155059814 1.7430950403213501 -0.699692964553833008
0.270792603492736816 1.70456695556640625 -0.596912205219268799
0.454002737998962402 1.69807624816894531 -0.659272193908691406
0.336742430925369263 1.68867731094360352 -0.413687527179718018
0.369706332683563232 1.76896631717681885 -0.465517967939376831
0.483187288045883179 1.69468986988067627 -0.745495975017547607
0.454231321811676025 1.74103617668151855 -0.696425199508666992
0.317362278699874878 1.66224014759063721 -0.427408427000045776
0.425709962844848633 1.67541670799255371 -0.578673303127288818
0.477073758840560913 1.69796645641326904 -0.724133968353271484
0.36342284083366394 1.69476485252380371 -0.496460229158401489
0.358001798391342163 1.79590070247650146 -0.761592209339141846
0.382031112909317017 1.71353054046630859 -0.485121309757232666
0.332356542348861694 1.70245254039764404 -0.416665941476821899
0.311419785022735596 1.63828790187835693 -0.513649225234985352
0.461059331893920898 1.76179766654968262 -0.645112872123718262
0.455011904239654541 1.90235805511474609 -0.579025745391845703
0.481740474700927734 1.7521132230758667 -0.683704137802124023
0.360029637813568115 1.73256552219390869 -0.434863507747650146
0.425242483615875244 1.62232422828674316 -0.686490118503570557
0.334284067153930664 1.80980384349822998 -0.374587744474411011
0.252509772777557373 1.65074193477630615 -0.425678282976150513
0.471702754497528076 1.70940160751342773 -0.680932760238647461
0.33362424373626709 1.84778118133544922 -0.34590834379196167
0.357786953449249268 1.68380212783813477 -0.448672592639923096
0.350749105215072632 2.06122732162475586 -0.705342471599578857
0.327595889568328857 1.74450457096099854 -0.709969580173492432
0.150698930025100708 1.9755321741104126 -0.40700000524520874
0.474899351596832275 1.71574115753173828 -0.691148161888122559
0.277710825204849243 1.64369773864746094 -0.425827503204345703
0.135239213705062866 2.01854729652404785 -0.37042662501335144
0.335509538650512695 1.88113319873809814 -0.326173603534698486
0.404355943202972412 1.63732767105102539 -0.61824268102645874
0.331764340400695801 1.66126513481140137 -0.47852623462677002
0.411008536815643311 1.67390537261962891 -0.580262422561645508
0.445102214813232422 1.63827919960021973 -0.696991205215454102
0.415855914354324341 1.63325130939483643 -0.632092654705047607
0.293855041265487671 1.64371347427368164 -0.437394499778747559
0.336242914199829102 2.06221747398376465 -0.701741576194763184
0.452820509672164917 1.74096024036407471 -0.651928842067718506
0.425706833600997925 1.77393603324890137 -0.583154916763305664
0.250042825937271118 1.67655706405639648 -0.608637690544128418
0.323487162590026855 1.65311455726623535 -0.556590914726257324
0.359706342220306396 1.671164870262146 -0.479511737823486328
0.341065436601638794 1.61873400211334229 -0.629238545894622803
0.365766912698745728 1.6814427375793457 -0.512127041816711426
0.483697861433029175 1.68263423442840576 -0.717698872089385986
0.302324593067169189 1.68531882762908936 -0.728407382965087891
0.434532731771469116 1.63392245769500732 -0.659312248229980469
0.46566346287727356 1.88495767116546631 -0.589034438133239746
0.415199965238571167 1.62257671356201172 -0.695587813854217529
0.46019253134727478 1.65607500076293945 -0.652367472648620605
0.133949980139732361 1.75843846797943115 -0.490612804889678955
0.300329715013504028 1.7268671989440918 -0.379278868436813354
0.322119921445846558 1.68497562408447266 -0.433304876089096069
0.342314988374710083 2.03275609016418457 -0.691506087779998779
0.391993194818496704 1.65511035919189453 -0.579785704612731934
0.459418535232543945 1.66886484622955322 -0.648077428340911865
0.475358307361602783 1.6899876594543457 -0.646946310997009277
0.153653889894485474 1.71520280838012695 -0.511097967624664307
0.274528741836547852 1.67004179954528809 -0.64027029275894165
0.259072005748748779 1.66218185424804688 -0.553309142589569092
0.468341648578643799 1.90336191654205322 -0.572950124740600586
0.394507139921188354 1.61983275413513184 -0.63969719409942627
0.468375861644744873 1.6933215856552124 -0.636894106864929199
0.255464076995849609 1.70939731597900391 -0.57063370943069458
0.316960960626602173 1.77788078784942627 -0.747693955898284912
0.300410091876983643 1.64202678203582764 -0.467109143733978271
0.445420920848846436 1.8488847017288208 -0.591679573059082031
0.474393129348754883 1.70017409324645996 -0.654376089572906494
0.18410646915435791 1.81304490566253662 -0.547328710556030273
0.386283129453659058 1.64120268821716309 -0.607157230377197266
0.357605904340744019 1.66698288917541504 -0.528813779354095459
0.47571265697479248 1.9366455078125 -0.579285860061645508
0.35765954852104187 1.66341280937194824 -0.549004673957824707
0.482559829950332642 1.68274021148681641 -0.725831151008605957
0.299253076314926147 1.667824387550354 -0.449655741453170776
0.396270990371704102 1.6159214973449707 -0.680319607257843018
0.293815493583679199 1.6958000659942627 -0.385352611541748047
0.354854553937911987 1.6775658130645752 -0.507625162601470947
0.337892413139343262 1.6535414457321167 -0.522899448871612549
0.379469215869903564 1.60442006587982178 -0.693750619888305664
0.464659392833709717 1.6568453311920166 -0.727535128593444824
0.379492074251174927 1.63011646270751953 -0.622263967990875244
0.37927699089050293 1.65729701519012451 -0.595569789409637451
0.285498976707458496 1.65971541404724121 -0.455526202917098999
0.415754318237304688 1.664817214012146 -0.658458888530731201
0.223452672362327576 1.78666067123413086 -0.56445610523223877
0.338271886110305786 1.66128599643707275 -0.507253170013427734
0.450515389442443848 1.64809989929199219 -0.675235092639923096
0.221641570329666138 1.73810052871704102 -0.553147017955780029
0.386960119009017944 1.61874675750732422 -0.723330378532409668
0.319207131862640381 1.67918586730957031 -0.404165059328079224
0.473292708396911621 1.75172317028045654 -0.708302915096282959
0.399030834436416626 1.65006923675537109 -0.679011702537536621
0.483202815055847168 1.68850445747375488 -0.741607069969177246
0.408670961856842041 1.6882328987121582 -0.588502585887908936
0.296014547348022461 1.68814933300018311 -0.720950603485107422
0.320804715156555176 1.64009392261505127 -0.627850890159606934
0.323121994733810425 1.64314329624176025 -0.659505844116210938
0.337637990713119507 2.07247447967529297 -0.708379387855529785
0.253362178802490234 1.82655811309814453 -0.646490871906280518
0.309412181377410889 1.73754203319549561 -0.392613410949707031
0.372070819139480591 1.69888019561767578 -0.489799529314041138
0.465340524911880493 1.81633293628692627 -0.641270935535430908
0.130991369485855103 2.00882554054260254 -0.363391101360321045
0.306600958108901978 1.65196168422698975 -0.470452368259429932
0.407979220151901245 1.77148449420928955 -0.494578063488006592
0.308748006820678711 1.64970827102661133 -0.545189380645751953
0.169266641139984131 1.89294576644897461 -0.462662994861602783
0.171331852674484253 1.90966415405273438 -0.450034618377685547
0.308789104223251343 1.64141273498535156 -0.484263211488723755
0.202443942427635193 1.84724819660186768 -0.528764188289642334
0.309678018093109131 1.64010584354400635 -0.500775754451751709
0.359693259000778198 1.86195063591003418 -0.751181185245513916
0.305679738521575928 1.64671587944030762 -0.445049524307250977
0.320794939994812012 1.62041628360748291 -0.692616581916809082
0.413502901792526245 1.68978750705718994 -0.774299561977386475
0.321118056774139404 1.97623026371002197 -0.677461385726928711
