ply
format ascii 1.0
element vertex 766
comment vertices
property float x
property float y
property float z
end_header
1.08649718761444092 1.0387575626373291 -0.0147063843905925751
1.03107571601867676 1.13830220699310303 -0.148543179035186768
1.00570178031921387 0.983613252639770508 -0.182837948203086853
1.04151034355163574 0.932582080364227295 -0.187599480152130127
0.985670030117034912 0.895346522331237793 -0.207358077168464661
1.32987844944000244 1.2203136682510376 -0.0645655617117881775
1.25340950489044189 0.953789472579956055 -0.00389448716305196285
1.03196036815643311 1.01383233070373535 -0.131628438830375671
0.891687870025634766 0.956296622753143311 -0.183727815747261047
0.854077935218811035 1.07141339778900146 -0.0412877462804317474
1.26258718967437744 1.22732007503509521 -0.0111842881888151169
1.38930702209472656 0.909678637981414795 -0.167909875512123108
1.24909114837646484 1.0304110050201416 -0.00580776948481798172
1.12579500675201416 1.10004544258117676 0.0113689480349421501
1.18301975727081299 1.09260439872741699 -0.0607985332608222961
1.21243047714233398 1.31086373329162598 -0.129186719655990601
0.911566257476806641 0.922453582286834717 -0.149674609303474426
1.13352870941162109 1.20414793491363525 -0.0191684439778327942
0.998083770275115967 1.01845073699951172 -0.158039882779121399
1.35401248931884766 1.1930394172668457 -0.0697741582989692688
1.1557241678237915 1.25629246234893799 -0.100580029189586639
1.5608447790145874 0.960255086421966553 -0.0907672345638275146
1.56652474403381348 0.960402488708496094 -0.0984304323792457581
1.12218582630157471 1.13581192493438721 0.00910227000713348389
1.0883486270904541 0.924218893051147461 -0.178061291575431824
1.17962110042572021 0.943955600261688232 -0.0172958318144083023
1.0494837760925293 1.19216692447662354 -0.113489754498004913
1.06965172290802002 1.29308617115020752 -0.148492813110351562
0.868112742900848389 1.10986173152923584 -0.155416280031204224
0.862503111362457275 0.999548077583312988 -0.108399331569671631
1.51298046112060547 0.887679040431976318 -0.16157098114490509
1.05220997333526611 0.880289316177368164 -0.209165871143341064
1.44366252422332764 1.22257280349731445 -0.111314430832862854
1.34092819690704346 1.31074082851409912 -0.125615254044532776
1.52324318885803223 1.23371362686157227 -0.106832422316074371
1.44114696979522705 1.22181987762451172 -0.117247916758060455
1.16694736480712891 0.8125496506690979 -0.216348081827163696
1.58186757564544678 1.04545342922210693 -0.0517913959920406342
1.57742345333099365 1.1174774169921875 -0.0399115905165672302
1.16719651222229004 1.32734096050262451 -0.135480880737304688
1.01536893844604492 1.087088942527771 -0.135555893182754517
1.04001867771148682 1.16112601757049561 -0.133909344673156738
1.58229303359985352 1.05701422691345215 -0.0461257696151733398
1.30584144592285156 1.15969216823577881 0.00176712451502680779
1.26248419284820557 1.28263401985168457 -0.129616215825080872
0.975810110569000244 0.863899469375610352 -0.202032789587974548
1.46530485153198242 0.961439907550811768 -0.159997075796127319
1.29371559619903564 1.28326034545898438 -0.124521292746067047
1.24503993988037109 1.07910621166229248 -0.0200442448258399963
1.50029981136322021 1.28542625904083252 -0.0888582766056060791
1.17446982860565186 0.949305474758148193 -0.0150919798761606216
1.01813626289367676 1.19002914428710938 -0.155528649687767029
1.11167585849761963 1.05091977119445801 -0.00506352772936224937
0.922683954238891602 0.929339826107025146 -0.194517150521278381
1.11680686473846436 0.885085403919219971 -0.198526054620742798
1.11100268363952637 1.067596435546875 2.48875130637316033e-05
1.104850172996521 1.21367669105529785 -0.10138191282749176
1.381095290184021 0.917082369327545166 -0.179165616631507874
1.13459348678588867 0.883699476718902588 -0.187669798731803894
1.0509648323059082 0.79538726806640625 -0.210300624370574951
1.28291678428649902 0.867933928966522217 -0.196197241544723511
1.51728546619415283 0.953587591648101807 -0.16904255747795105
1.49840962886810303 0.869187474250793457 -0.175539851188659668
1.15920174121856689 1.17762994766235352 0.00344779342412948608
1.02080023288726807 1.10788321495056152 -0.146103158593177795
1.50539636611938477 1.28215765953063965 -0.128366321325302124
1.19309437274932861 0.861229538917541504 -0.196161717176437378
1.4088282585144043 1.14939248561859131 -0.12717360258102417
1.20171082019805908 1.05840611457824707 -0.0710605159401893616
1.45443153381347656 1.10399317741394043 -0.145672142505645752
1.07914972305297852 1.19999361038208008 -0.0865228623151779175
1.10470175743103027 1.26549780368804932 -0.153494283556938171
1.44415807723999023 1.18480277061462402 -0.143404275178909302
0.881459474563598633 1.15383374691009521 -0.15023571252822876
1.0374678373336792 1.1623222827911377 -0.141631737351417542
1.0408402681350708 1.16218888759613037 -0.130503997206687927
1.02639365196228027 1.09248733520507812 -0.15375182032585144
1.53457081317901611 1.19113755226135254 -0.0965063273906707764
1.08886539936065674 1.1934959888458252 -0.0397016629576683044
1.3431931734085083 0.895609080791473389 -0.184156239032745361
1.20669686794281006 1.30245029926300049 -0.129483222961425781
1.01302564144134521 1.06414508819580078 -0.162659436464309692
1.38915443420410156 1.17666661739349365 -0.123611569404602051
1.12182891368865967 0.832926154136657715 -0.189359381794929504
1.56701099872589111 1.04335129261016846 -0.110388673841953278
1.00424420833587646 0.991411447525024414 -0.180123880505561829
1.09380233287811279 1.06199514865875244 0.00261552142910659313
1.55388176441192627 0.911837458610534668 0.149981573224067688
1.56724929809570312 1.03536975383758545 -0.108661465346813202
1.06415951251983643 0.974643528461456299 -0.0542711839079856873
1.01727652549743652 1.09506785869598389 -0.152905568480491638
1.37652027606964111 0.959009885787963867 -0.122907936573028564
1.18836843967437744 1.0666508674621582 -0.0809718295931816101
1.28123164176940918 1.28910088539123535 -0.135006442666053772
1.02634298801422119 1.18091118335723877 -0.149078726768493652
1.46897375583648682 1.31031107902526855 -0.0932231321930885315
1.33889687061309814 1.07260978221893311 0.00774325849488377571
1.09326696395874023 1.15245413780212402 -0.0228524263948202133
1.2717517614364624 1.22502529621124268 -0.00701101310551166534
1.39236772060394287 1.05781924724578857 -0.0295733120292425156
1.31517207622528076 1.23384773731231689 -0.0727500393986701965
1.48011040687561035 0.82326805591583252 -0.153218358755111694
1.42501258850097656 1.3529742956161499 -0.0873487740755081177
1.46776902675628662 0.818992555141448975 -0.172906681895256042
1.4314953088760376 0.920885741710662842 -0.170303657650947571
1.17771601676940918 1.17008721828460693 0.0157371647655963898
1.22275674343109131 1.30240464210510254 -0.141336128115653992
0.93278127908706665 0.978423953056335449 -0.175657972693443298
1.4118887186050415 1.1624302864074707 -0.130005881190299988
1.39242994785308838 1.11161553859710693 -0.0303570721298456192
1.02869927883148193 0.907780766487121582 -0.159116178750991821
1.56582283973693848 1.04592645168304443 0.0916164442896842957
1.19821441173553467 1.31500458717346191 -0.136202514171600342
1.40009558200836182 1.18431568145751953 -0.125128254294395447
1.07453393936157227 1.21302056312561035 -0.148800522089004517
1.43162524700164795 1.08561444282531738 -0.145436942577362061
1.31614911556243896 1.26237308979034424 -0.119853004813194275
1.37099564075469971 1.30343818664550781 -0.127425521612167358
1.03255915641784668 1.14239633083343506 -0.127692699432373047
1.49024772644042969 1.14604067802429199 -0.0723496377468109131
1.11777734756469727 0.840873360633850098 -0.197252482175827026
0.864842355251312256 0.978921830654144287 -0.055476263165473938
1.01980650424957275 0.963987410068511963 -0.18253248929977417
1.58007717132568359 1.0198286771774292 -0.0856436043977737427
1.49467623233795166 0.87323451042175293 -0.0948666781187057495
0.90012359619140625 0.919569194316864014 -0.141052976250648499
1.45611870288848877 1.13046681880950928 -0.124987572431564331
1.05859625339508057 0.964692533016204834 -0.170779094099998474
1.29589951038360596 1.03719580173492432 -0.00117428135126829147
1.34154558181762695 1.06839871406555176 0.00432886974886059761
1.25266671180725098 1.218422532081604 0.00132963235955685377
0.885783374309539795 0.968245983123779297 -0.180901467800140381
1.20540368556976318 1.01930868625640869 -0.0315754786133766174
0.960146427154541016 0.954520046710968018 -0.195937693119049072
1.2665477991104126 1.14193475246429443 0.0211358070373535156
1.04740309715270996 1.16237294673919678 -0.0512883663177490234
1.22876882553100586 1.04879343509674072 -0.0838084295392036438
1.25317740440368652 1.08983242511749268 -0.0579664409160614014
1.42503225803375244 0.906263530254364014 -0.165324494242668152
0.999466359615325928 1.11386024951934814 -0.166879847645759583
1.5682225227355957 1.03655314445495605 -0.132906302809715271
1.23498451709747314 1.01854181289672852 -0.0130731444805860519
1.37447834014892578 0.823190152645111084 -0.203738540410995483
1.02711856365203857 1.13752353191375732 -0.0751316547393798828
1.03009188175201416 1.09952044486999512 -0.159685388207435608
1.33037745952606201 1.44205546379089355 -0.122831948101520538
0.890576183795928955 1.00844883918762207 -0.139798372983932495
1.19564998149871826 0.856856048107147217 -0.197220921516418457
1.20274651050567627 1.36399316787719727 -0.136007368564605713
0.990965545177459717 1.12219786643981934 -0.158607214689254761
1.35012948513031006 1.14368355274200439 -0.0513836070895195007
1.22728061676025391 1.07960808277130127 -0.0588383302092552185
0.909729659557342529 0.960832715034484863 -0.189542263746261597
1.22426414489746094 1.08480644226074219 -0.0469612814486026764
1.22138655185699463 1.32960128784179688 -0.13184511661529541
1.06039893627166748 1.19708025455474854 -0.125418022274971008
1.0550912618637085 1.17396712303161621 -0.0967092365026473999
1.40271925926208496 1.18048584461212158 -0.128937035799026489
1.50841522216796875 0.868866205215454102 -0.150576964020729065
1.04988348484039307 1.18415188789367676 -0.143564745783805847
1.5544581413269043 1.19261360168457031 -0.081076987087726593
1.07204687595367432 1.1939464807510376 -0.0481959618628025055
1.3108975887298584 0.880511760711669922 -0.17860063910484314
1.38538169860839844 1.00452673435211182 -0.0375244021415710449
1.55426514148712158 1.19678926467895508 -0.0560175664722919464
1.05593538284301758 1.00245904922485352 -0.0419992990791797638
1.03102123737335205 1.05540430545806885 -0.097850993275642395
1.10657382011413574 1.14001703262329102 -0.0356138870120048523
1.56750833988189697 1.1341407299041748 -0.0709703490138053894
1.58065891265869141 1.02299809455871582 -0.0994105786085128784
1.07541358470916748 0.965614557266235352 -0.0459848381578922272
1.51503849029541016 0.874794721603393555 -0.125838816165924072
1.04366564750671387 0.984723746776580811 -0.140573278069496155
1.04058170318603516 1.1587904691696167 -0.14372195303440094
1.11615562438964844 0.963275432586669922 0.0297075491398572922
1.0914306640625 1.13849592208862305 -0.0123789412900805473
1.06634926795959473 0.950684726238250732 -0.177061587572097778
0.90134662389755249 1.241690993309021 -0.131488978862762451
1.40780162811279297 1.1231914758682251 -0.0719003975391387939
0.975830912590026855 0.871521115303039551 -0.204505383968353271
1.41934871673583984 0.94422614574432373 -0.139170005917549133
0.969690799713134766 0.899517953395843506 -0.20397321879863739
1.29685187339782715 0.892495393753051758 -0.181591629981994629
1.38912343978881836 0.974249124526977539 -0.131390854716300964
1.3633495569229126 1.05277538299560547 -0.00442638387903571129
1.02415907382965088 1.08630144596099854 -0.174075856804847717
1.24732041358947754 1.08513951301574707 -0.0507545173168182373
0.922638535499572754 0.923029541969299316 -0.194467425346374512
1.13345324993133545 1.04864668846130371 0.00967095419764518738
1.35379087924957275 0.922080576419830322 -0.170847430825233459
1.49876904487609863 0.832699716091156006 0.0480256713926792145
1.19783484935760498 1.07259094715118408 -0.0639361739158630371
1.34296619892120361 1.24995040893554688 -0.122188769280910492
1.4845651388168335 0.935876429080963135 -0.179901376366615295
1.45565545558929443 1.1710968017578125 -0.142252743244171143
0.992569983005523682 1.11393499374389648 -0.164174765348434448
1.01817989349365234 1.0295635461807251 -0.146942645311355591
1.3533252477645874 1.1785578727722168 -0.0310752801597118378
1.57029569149017334 0.993455708026885986 -0.121820852160453796
1.18134772777557373 0.938149690628051758 -0.01963791623711586
1.42766487598419189 1.05874788761138916 -0.146735981106758118
1.42112648487091064 1.01124680042266846 -0.154304817318916321
1.08723306655883789 1.18495857715606689 -0.0747041180729866028
1.10640347003936768 0.845663011074066162 -0.197015255689620972
1.09943199157714844 1.04996418952941895 -0.015108991414308548
1.20678806304931641 1.23147106170654297 -0.0223788917064666748
1.39832353591918945 1.16717219352722168 -0.128778606653213501
0.890123069286346436 0.921656966209411621 -0.133064895868301392
1.41244924068450928 1.09994399547576904 -0.103552646934986115
1.40112924575805664 1.26837527751922607 -0.121360071003437042
1.25536441802978516 0.945901036262512207 -0.010142086073756218
1.05638206005096436 0.972329080104827881 -0.160157665610313416
1.25232887268066406 1.22790980339050293 -0.00387745816260576248
1.06973111629486084 1.0101161003112793 -0.102694384753704071
0.942300975322723389 0.90579146146774292 -0.197004586458206177
1.40828502178192139 1.32704460620880127 -0.117709852755069733
1.58343613147735596 1.04002988338470459 -0.0398635081946849823
1.57014048099517822 1.10370922088623047 -0.126419946551322937
1.13399183750152588 1.1936500072479248 -0.0172234103083610535
1.46717286109924316 0.820611953735351562 -0.176261082291603088
1.53170132637023926 1.07340216636657715 -0.128473833203315735
1.04238307476043701 1.05261349678039551 -0.0452957972884178162
1.10970854759216309 1.00655758380889893 -0.0446367785334587097
1.08843755722045898 0.943269491195678711 -0.0570410825312137604
1.55275905132293701 0.924988627433776855 -0.0937592759728431702
1.10219454765319824 0.994581937789916992 -0.0141634577885270119
1.02319502830505371 1.06515622138977051 -0.118305519223213196
1.5391923189163208 0.93899458646774292 0.0502883456647396088
1.08436834812164307 1.17001724243164062 -0.104087434709072113
1.3965303897857666 1.18640375137329102 -0.121261738240718842
1.14405012130737305 1.22363877296447754 -0.0153420129790902138
1.39759862422943115 1.25294387340545654 -0.130192145705223083
1.11875522136688232 1.32922494411468506 -0.136207729578018188
1.54909801483154297 1.19254064559936523 -0.115820556879043579
1.56200039386749268 1.18277263641357422 -0.0571820177137851715
1.5488278865814209 0.919660568237304688 0.113005898892879486
1.11792099475860596 1.33796584606170654 -0.132100015878677368
1.08264315128326416 1.19871139526367188 -0.0744375884532928467
1.55735695362091064 1.16725504398345947 -0.0487494245171546936
1.04317080974578857 1.16920340061187744 -0.109831139445304871
1.40204238891601562 1.18184781074523926 -0.129325389862060547
1.50317370891571045 0.913830697536468506 -0.169641226530075073
1.08492171764373779 1.19218075275421143 -0.138585910201072693
1.43452656269073486 0.7869911789894104 -0.121120080351829529
1.41695761680603027 1.22759532928466797 -0.120184697210788727
1.35916793346405029 1.21131622791290283 -0.109507843852043152
1.56574833393096924 1.08341336250305176 -0.123729519546031952
1.07282912731170654 1.04624879360198975 -0.0148815978318452835
1.50377023220062256 0.865237712860107422 -0.0971755236387252808
1.02250754833221436 1.10325849056243896 -0.127419203519821167
1.56195127964019775 0.998189449310302734 -0.119971759617328644
1.44467329978942871 1.16113042831420898 -0.132925927639007568
1.406707763671875 1.10562813282012939 -0.0951488390564918518
1.56252264976501465 1.12071514129638672 0.0947311893105506897
1.35870301723480225 1.06763613224029541 -0.00394154153764247894
0.986166656017303467 0.870171606540679932 -0.208558514714241028
1.45494639873504639 1.20030999183654785 -0.133292302489280701
1.1348721981048584 1.26468515396118164 -0.111647143959999084
1.03261649608612061 1.14155566692352295 -0.13736821711063385
1.48276340961456299 1.29177093505859375 -0.0840536355972290039
1.52921175956726074 0.926823854446411133 -0.158526405692100525
1.21758460998535156 1.29361796379089355 -0.115489393472671509
1.38899588584899902 1.19792771339416504 -0.124811932444572449
0.940649986267089844 0.864403367042541504 -0.195835009217262268
1.40184915065765381 1.29820871353149414 -0.100047968327999115
1.12446701526641846 0.899501264095306396 -0.181609615683555603
1.56063568592071533 1.1464611291885376 -0.121505692601203918
1.46845412254333496 0.830078780651092529 -0.175727531313896179
1.00700283050537109 1.22557663917541504 -0.149361088871955872
1.2215350866317749 1.25299930572509766 -0.0289946962147951126
0.932293951511383057 0.898452162742614746 -0.194148734211921692
1.03418946266174316 1.0085068941116333 -0.166758015751838684
1.53095507621765137 1.07464349269866943 -0.153944462537765503
1.09766077995300293 1.22924709320068359 -0.0757424607872962952
1.08716666698455811 0.931738317012786865 -0.0898758620023727417
1.54370105266571045 0.960618197917938232 -0.141653522849082947
1.51365900039672852 0.875967741012573242 -0.159500852227210999
1.07464540004730225 1.20579874515533447 -0.134445458650588989
1.3697817325592041 1.21613621711730957 -0.127794280648231506
1.34424567222595215 1.19189751148223877 -0.0479419901967048645
1.0051414966583252 1.11109399795532227 -0.155358657240867615
1.26594996452331543 1.01221334934234619 -0.00659924652427434921
1.5630183219909668 0.995710134506225586 -0.0802099034190177917
1.46536076068878174 1.29282081127166748 -0.114597514271736145
1.18604469299316406 0.933650016784667969 -0.0218360684812068939
1.45993161201477051 1.02780747413635254 -0.151977494359016418
1.23434364795684814 1.30906105041503906 -0.13118647038936615
1.09655654430389404 1.23732423782348633 -0.114134490489959717
0.863520920276641846 1.02290010452270508 -0.11073911190032959
1.52924692630767822 1.2475132942199707 -0.0916599780321121216
1.27871453762054443 0.870346605777740479 -0.187176227569580078
1.52793979644775391 1.20249462127685547 -0.106064252555370331
1.41531503200531006 1.25367343425750732 -0.121215924620628357
0.975074946880340576 1.06672501564025879 -0.176731705665588379
1.12330090999603271 0.836487054824829102 -0.190964967012405396
1.4328761100769043 1.18104469776153564 -0.130596160888671875
1.45820140838623047 1.02354300022125244 -0.148403748869895935
1.54323279857635498 1.07153093814849854 -0.125507280230522156
1.09182453155517578 1.21279418468475342 -0.0464789457619190216
1.01724469661712646 1.09479153156280518 -0.147192448377609253
1.06103742122650146 0.980733394622802734 -0.0469049476087093353
1.48739492893218994 0.848811149597167969 -0.16751408576965332
1.02725815773010254 1.0703963041305542 -0.0711363032460212708
1.08025658130645752 1.04802823066711426 -0.0149861695244908333
0.849886178970336914 1.09558641910552979 -0.106636703014373779
1.03850436210632324 1.09872150421142578 -0.0398179516196250916
1.03274226188659668 1.12689077854156494 -0.128807038068771362
0.903886795043945312 0.911867678165435791 -0.146428212523460388
1.53576445579528809 1.01626718044281006 -0.145110353827476501
1.06501948833465576 1.2330937385559082 -0.136241734027862549
1.40839242935180664 1.0759279727935791 -0.123126126825809479
1.336769700050354 1.24170386791229248 -0.107746973633766174
0.912187933921813965 0.896383047103881836 -0.172037899494171143
0.858450174331665039 1.09114754199981689 -0.0613065063953399658
1.24500775337219238 1.07722365856170654 -0.0722808986902236938
1.38451385498046875 0.783260524272918701 -0.194520607590675354
1.02305269241333008 1.09354877471923828 -0.142401665449142456
1.23592162132263184 1.2719653844833374 -0.10608365386724472
1.20008563995361328 0.84090876579284668 -0.203172624111175537
1.36728835105895996 1.19861066341400146 -0.0967500507831573486
1.28597140312194824 0.886481404304504395 -0.175470024347305298
1.55643117427825928 0.960975706577301025 -0.112891055643558502
0.924436986446380615 0.989898443222045898 -0.190690994262695312
1.22545647621154785 1.06917250156402588 -0.0664713308215141296
1.50508379936218262 0.868993699550628662 -0.145371511578559875
1.29168283939361572 1.27153253555297852 -0.124577730894088745
1.42170119285583496 0.985564231872558594 -0.166643336415290833
0.917627394199371338 1.09329485893249512 -0.123963236808776855
1.4221566915512085 1.19984245300292969 -0.129398122429847717
0.869555056095123291 0.950614750385284424 -0.0665331706404685974
1.02198708057403564 1.09019052982330322 -0.148764938116073608
1.49918210506439209 0.866674125194549561 -0.0984765589237213135
1.03796565532684326 1.16800057888031006 -0.145058050751686096
0.977944791316986084 0.885487675666809082 -0.206875264644622803
1.28795289993286133 0.880378007888793945 -0.181531712412834167
1.05043470859527588 1.25613284111022949 -0.135562598705291748
1.16346597671508789 1.16480648517608643 0.0106989098712801933
1.41445505619049072 1.06842958927154541 -0.131818875670433044
1.10423612594604492 1.0739825963973999 0.00299252104014158249
1.03400492668151855 0.994820058345794678 -0.170454099774360657
1.41735851764678955 0.939901351928710938 -0.180786475539207458
1.34305119514465332 0.906203627586364746 -0.179537177085876465
1.5645146369934082 1.00053107738494873 -0.0381140857934951782
1.2323232889175415 1.14756989479064941 0.0179484765976667404
1.04632318019866943 1.10843515396118164 -0.0596233531832695007
1.50192666053771973 0.89492487907409668 0.0501975975930690765
0.887215197086334229 0.969402909278869629 -0.173228085041046143
0.910114586353302002 1.03024375438690186 -0.186916276812553406
1.22833490371704102 1.07081747055053711 -0.0623923949897289276
1.23839104175567627 1.20632755756378174 0.0121565209701657295
1.0338752269744873 1.19261956214904785 -0.150995582342147827
1.08258271217346191 1.35973823070526123 -0.116195246577262878
1.50356113910675049 0.884615123271942139 -0.135359272360801697
1.35611140727996826 1.27159786224365234 -0.124266520142555237
1.12023818492889404 0.837169826030731201 -0.190967530012130737
1.15784919261932373 1.25964450836181641 -0.0629425570368766785
1.31064867973327637 1.13007557392120361 0.00610023923218250275
1.4449537992477417 0.980720818042755127 -0.161863073706626892
1.32240641117095947 1.01057314872741699 -0.0174791105091571808
1.41219723224639893 1.10678184032440186 -0.120361946523189545
0.998863458633422852 1.19156503677368164 -0.166569918394088745
1.16303730010986328 1.16426920890808105 0.00335681834258139133
1.14138495922088623 0.875744462013244629 -0.195298075675964355
1.13027322292327881 1.14663529396057129 0.00799304619431495667
1.39022207260131836 0.986580133438110352 -0.147746428847312927
1.02969217300415039 1.04350519180297852 -0.133151859045028687
1.4071803092956543 0.924619734287261963 -0.163698151707649231
1.289955735206604 1.18707358837127686 0.00474749179556965828
1.14811336994171143 1.17893397808074951 -0.00265201064758002758
1.23444890975952148 0.885632932186126709 -0.18985411524772644
1.26438164710998535 1.03871428966522217 -0.00368803762830793858
1.55197429656982422 1.16796576976776123 -0.110759854316711426
1.08565056324005127 1.38313937187194824 -0.0987835675477981567
1.11820423603057861 1.24990034103393555 -0.14449608325958252
1.42998063564300537 1.19104468822479248 -0.129935547709465027
1.03982341289520264 1.15926361083984375 -0.134640440344810486
1.15438103675842285 0.869188606739044189 -0.198611065745353699
1.13214194774627686 0.84564584493637085 -0.161234080791473389
0.865161597728729248 0.985592126846313477 -0.0789417251944541931
0.884182095527648926 0.958774685859680176 -0.159031599760055542
0.929898381233215332 1.18939626216888428 -0.140658721327781677
1.31814765930175781 1.24720382690429688 -0.105789259076118469
1.18168067932128906 0.885610759258270264 -0.17869935929775238
1.53082954883575439 0.906960964202880859 -0.144367784261703491
1.04346835613250732 0.980946123600006104 -0.173255577683448792
1.47865056991577148 0.829659581184387207 -0.169350653886795044
1.40300953388214111 0.93729698657989502 -0.169395819306373596
1.10322797298431396 1.22654545307159424 -0.081521250307559967
1.57003092765808105 0.995695769786834717 -0.0296529941260814667
1.40534710884094238 0.817453384399414062 -0.175138905644416809
1.12763047218322754 0.991557776927947998 -0.0120092378929257393
1.14721691608428955 1.22172081470489502 -0.0193321593105792999
1.20745408535003662 1.38162291049957275 -0.131107136607170105
1.52510702610015869 0.919025301933288574 -0.158144474029541016
1.55019104480743408 1.19247567653656006 -0.119213290512561798
1.13827717304229736 1.28097116947174072 -0.123104877769947052
1.23434948921203613 1.07102322578430176 -0.0799799114465713501
1.22614753246307373 1.31601250171661377 -0.126555278897285461
0.869360983371734619 1.09980010986328125 -0.162399262189865112
1.39236164093017578 1.16558527946472168 -0.112176895141601562
1.52934169769287109 0.879015147686004639 -0.113070562481880188
1.25266027450561523 0.87547612190246582 -0.179497987031936646
1.22406673431396484 1.28710412979125977 -0.134164154529571533
1.43718242645263672 1.19614744186401367 -0.119468256831169128
0.89663994312286377 0.920357048511505127 -0.158716142177581787
1.58005785942077637 1.09769928455352783 -0.106784999370574951
1.08762919902801514 1.04517257213592529 -0.0408755168318748474
1.5804893970489502 1.03420436382293701 -0.0868655070662498474
1.37261295318603516 1.19031977653503418 -0.0979627072811126709
0.90749812126159668 0.941663205623626709 -0.120994910597801208
1.03153824806213379 1.13105678558349609 -0.132243216037750244
1.39460897445678711 1.37046384811401367 -0.104141712188720703
1.25645804405212402 1.18448817729949951 0.0101534677669405937
1.34849202632904053 1.22740685939788818 -0.116819091141223907
1.4617002010345459 1.21529412269592285 -0.137284383177757263
1.18498373031616211 1.2602459192276001 -0.0920148193836212158
1.32097673416137695 0.900512039661407471 -0.174841895699501038
1.32607245445251465 1.20456171035766602 -0.042730625718832016
1.15462207794189453 1.16858220100402832 0.00643430138006806374
1.35776400566101074 0.943265795707702637 -0.156771555542945862
1.09972798824310303 1.13360679149627686 -0.00138177245389670134
1.03657293319702148 1.09113848209381104 -0.0602209307253360748
1.12337517738342285 0.902771353721618652 -0.18117058277130127
1.54334425926208496 1.05864930152893066 -0.148290053009986877
1.01483547687530518 1.09355056285858154 -0.139830008149147034
1.16427981853485107 0.816681325435638428 -0.219842791557312012
0.961757898330688477 1.0129697322845459 -0.15787188708782196
1.33572578430175781 1.19347047805786133 -0.0886111035943031311
1.4731670618057251 1.30280351638793945 -0.110265813767910004
1.57332837581634521 0.996081113815307617 0.0985085964202880859
1.21633100509643555 1.18055629730224609 0.0222748257219791412
1.09443569183349609 1.21745991706848145 -0.159785956144332886
1.39473605155944824 0.968072235584259033 -0.16363079845905304
1.02331650257110596 0.922631502151489258 -0.174577251076698303
1.4370957612991333 0.815619409084320068 -0.17949579656124115
1.53222811222076416 1.23054265975952148 -0.0468028299510478973
1.47664892673492432 1.1958928108215332 -0.136474341154098511
1.19156956672668457 1.09430181980133057 -0.0667461603879928589
1.53763127326965332 1.19642961025238037 -0.073208928108215332
1.1016768217086792 1.20092582702636719 -0.0245966166257858276
1.09346175193786621 1.05608522891998291 0.00303171225823462009
1.06852293014526367 0.906387984752655029 -0.190449729561805725
1.48759126663208008 0.855041563510894775 -0.146023273468017578
1.43594133853912354 0.981975674629211426 -0.159480124711990356
1.27747976779937744 1.2350013256072998 -0.0170495416969060898
1.19434595108032227 1.09870898723602295 -0.0495591647922992706
1.50633633136749268 1.27201163768768311 -0.0748641043901443481
1.41020727157592773 1.06213164329528809 -0.087166517972946167
1.38727772235870361 1.08716762065887451 -0.0738733783364295959
1.24839019775390625 1.22682881355285645 -0.00242850976064801216
1.22858548164367676 1.04978132247924805 -0.0721717476844787598
1.39899730682373047 0.92170637845993042 -0.167783781886100769
1.03172242641448975 1.03933596611022949 -0.0762510895729064941
1.36600136756896973 0.91519540548324585 -0.179021134972572327
1.5747603178024292 1.00619900226593018 -0.0551756098866462708
1.03058993816375732 1.15011358261108398 -0.083907492458820343
1.11402451992034912 1.19553923606872559 -0.0334349870681762695
0.862109839916229248 1.06210219860076904 -0.147711589932441711
1.0191580057144165 1.07363307476043701 -0.157533958554267883
1.16323268413543701 0.956800639629364014 -0.0139376716688275337
1.11401402950286865 0.969907999038696289 -0.0234284829348325729
1.20982074737548828 1.31631827354431152 -0.136581286787986755
1.14086973667144775 1.18201088905334473 -0.00682902336120605469
1.22073173522949219 1.07827842235565186 -0.0681638941168785095
1.56387066841125488 1.18918383121490479 -0.0908217728137969971
1.0646587610244751 1.17718231678009033 -0.099280722439289093
1.04831826686859131 0.890443980693817139 -0.203369066119194031
1.27355313301086426 1.36583113670349121 -0.117356076836585999
1.58072733879089355 1.07602047920227051 -0.107339352369308472
1.03536570072174072 1.09692585468292236 -0.0781892985105514526
1.18449509143829346 1.26010656356811523 -0.0440279841423034668
1.56481444835662842 0.934211432933807373 0.115294367074966431
1.50387358665466309 0.842212140560150146 -0.119412146508693695
0.898959159851074219 0.926771819591522217 -0.159466281533241272
0.985206663608551025 0.918575465679168701 -0.206157088279724121
1.46497237682342529 1.17428123950958252 -0.107418172061443329
1.20545244216918945 1.05742788314819336 -0.0857859998941421509
1.07681453227996826 1.15455007553100586 -0.0927565917372703552
1.27087116241455078 1.18805992603302002 0.00596800446510314941
1.10070252418518066 1.2126610279083252 -0.0691866874694824219
1.25767910480499268 1.22762417793273926 -0.00596228335052728653
1.09374260902404785 0.971315860748291016 -0.0956284627318382263
1.45745682716369629 0.879554510116577148 -0.171608179807662964
0.872122466564178467 1.00645661354064941 -0.146805122494697571
1.54004180431365967 0.930101990699768066 0.0705710500478744507
1.02020776271820068 1.07883620262145996 -0.126056298613548279
1.15902435779571533 1.23339545726776123 -0.0316447988152503967
1.40881192684173584 1.16179740428924561 -0.130619347095489502
1.53901660442352295 1.00234735012054443 -0.154501751065254211
1.45498085021972656 1.32983994483947754 -0.101128056645393372
1.09446549415588379 1.20761847496032715 -0.0679201260209083557
1.1733773946762085 0.960614800453186035 -0.0164514761418104172
1.08627879619598389 1.24694192409515381 -0.149124249815940857
1.4356391429901123 1.20657885074615479 -0.146588221192359924
1.46342432498931885 1.22482621669769287 -0.118653766810894012
1.34840726852416992 1.02670884132385254 -0.0309480279684066772
1.52567517757415771 1.23838675022125244 -0.0857603102922439575
1.09386622905731201 0.857545971870422363 -0.156134530901908875
0.901318609714508057 0.925458967685699463 -0.147315487265586853
1.08829200267791748 1.05843353271484375 -0.00334452139213681221
1.03972113132476807 0.997432470321655273 -0.111862942576408386
0.883670210838317871 0.914148509502410889 -0.134364038705825806
1.06251370906829834 1.00864851474761963 -0.0668393597006797791
1.40115833282470703 1.18546450138092041 -0.12843671441078186
1.5575406551361084 0.938529551029205322 -0.146960899233818054
1.47007954120635986 1.055655837059021 -0.105145834386348724
1.16869473457336426 1.07161271572113037 -0.0864008665084838867
1.35097396373748779 1.12109041213989258 -0.0158564411103725433
1.05425906181335449 1.17428076267242432 -0.114935889840126038
1.14578878879547119 1.14673113822937012 0.0175075586885213852
1.05056869983673096 1.10546505451202393 -0.043909899890422821
1.57374656200408936 0.991930544376373291 -0.0624534450471401215
1.02259516716003418 1.06236398220062256 -0.101888924837112427
1.46133267879486084 1.32198619842529297 -0.117853611707687378
1.19945013523101807 1.23405158519744873 0.00488186301663517952
1.56841075420379639 1.07980990409851074 -0.110325150191783905
1.02386057376861572 1.12380504608154297 -0.121339879930019379
1.02329480648040771 1.11322855949401855 -0.152870982885360718
1.56479215621948242 1.01388764381408691 -0.129714056849479675
1.56359624862670898 0.97070777416229248 -0.12573280930519104
1.07549703121185303 1.02369070053100586 -0.0317246131598949432
1.39240777492523193 1.01296389102935791 -0.0574514567852020264
1.151802659034729 1.2407304048538208 -0.0459062755107879639
1.33460497856140137 1.44173645973205566 -0.116057209670543671
1.31480729579925537 1.20955026149749756 -0.0551694892346858978
1.35520744323730469 0.931841850280761719 -0.0980038568377494812
1.36658167839050293 1.22783458232879639 -0.125736847519874573
1.44908046722412109 0.85070192813873291 -0.187843888998031616
1.08753037452697754 1.23076820373535156 -0.112990543246269226
1.1817086935043335 1.04908311367034912 -0.0630306601524353027
1.28343796730041504 1.20950520038604736 0.00176888750866055489
1.17411160469055176 1.0679394006729126 -0.0363026559352874756
1.44421529769897461 1.13375020027160645 -0.09020233154296875
1.21193361282348633 1.10513222217559814 -0.0369571410119533539
1.00743293762207031 1.15476131439208984 -0.175333157181739807
1.02551686763763428 1.059470534324646 -0.144704774022102356
1.56515109539031982 1.09653604030609131 -0.0811915472149848938
1.10707199573516846 1.17027056217193604 -0.0334672294557094574
0.851812362670898438 1.06937491893768311 -0.066202208399772644
1.05557560920715332 1.22765302658081055 -0.148252502083778381
1.07393419742584229 0.917101919651031494 -0.200382605195045471
0.88205331563949585 0.962164878845214844 -0.114777781069278717
0.876025021076202393 1.06159126758575439 -0.164674565196037292
1.40778195858001709 1.18227493762969971 -0.129561901092529297
1.56271481513977051 1.0266035795211792 -0.112176708877086639
0.887051224708557129 1.21643257141113281 -0.124286502599716187
0.949189066886901855 0.845445871353149414 -0.183126389980316162
1.41279172897338867 0.911932528018951416 -0.159765183925628662
1.29293465614318848 1.27018475532531738 -0.114573851227760315
1.16176283359527588 1.28286278247833252 -0.113602332770824432
1.28096771240234375 0.976339459419250488 -0.00153521203901618719
1.10374879837036133 1.13533329963684082 0.00356746604666113853
1.26031351089477539 1.2025294303894043 -0.00337458844296634197
1.41478860378265381 1.09170043468475342 -0.130834311246871948
1.05201268196105957 1.17231965065002441 -0.0523096770048141479
1.03142571449279785 1.00102090835571289 -0.168747320771217346
1.10564649105072021 1.22160732746124268 -0.0607233494520187378
1.21945571899414062 0.883754611015319824 -0.171940460801124573
1.57240211963653564 1.04850995540618896 -0.133902236819267273
0.996243298053741455 0.799495279788970947 -0.191434785723686218
1.19380521774291992 1.01610100269317627 -0.0116861118003726006
1.53956186771392822 0.963128805160522461 -0.154639437794685364
1.18587386608123779 1.29533326625823975 -0.143686547875404358
1.19504654407501221 1.36638236045837402 -0.111213654279708862
1.41272664070129395 1.14598143100738525 -0.129534333944320679
1.22280037403106689 0.858590602874755859 -0.195999890565872192
1.57121086120605469 1.1648104190826416 -0.0356658026576042175
1.56027233600616455 0.913753628730773926 -0.0952629223465919495
1.56911635398864746 0.972884297370910645 -0.0914788171648979187
1.41507744789123535 1.00574517250061035 -0.156757175922393799
1.56389141082763672 1.18168294429779053 -0.0825075134634971619
0.981481850147247314 1.3281552791595459 -0.112342566251754761
1.36716008186340332 1.26267433166503906 -0.125587329268455505
1.04803788661956787 1.1822434663772583 -0.152282252907752991
1.12453675270080566 1.2436366081237793 -0.0861993953585624695
1.09431827068328857 1.19906401634216309 -0.0340978056192398071
1.25022482872009277 1.28280794620513916 -0.12722700834274292
1.25268805027008057 1.05421590805053711 -0.0325055532157421112
1.38788080215454102 1.1900789737701416 -0.117382749915122986
1.17559456825256348 1.30126762390136719 -0.126602903008460999
1.09848916530609131 1.00501143932342529 -0.0445638410747051239
1.51903021335601807 0.863702833652496338 -0.0777389779686927795
1.17668473720550537 1.22746419906616211 0.0024129853118211031
1.39912867546081543 1.36183774471282959 -0.0647159144282341003
1.07634603977203369 0.955773055553436279 -0.0553584769368171692
1.44906604290008545 1.00012373924255371 -0.165323078632354736
1.46971356868743896 1.06649196147918701 -0.145200073719024658
1.24192476272583008 1.16742467880249023 0.0151287317276000977
0.888489305973052979 1.21216487884521484 -0.136314839124679565
1.34529721736907959 1.17068099975585938 -0.00657672528177499771
1.16937732696533203 1.27611935138702393 -0.114543557167053223
1.11866998672485352 0.88408195972442627 -0.196573525667190552
1.12805330753326416 0.882165253162384033 -0.194847866892814636
1.41063845157623291 1.06332659721374512 -0.090832240879535675
1.40280437469482422 1.33768308162689209 -0.117052517831325531
1.46589934825897217 0.85513150691986084 -0.168255224823951721
1.03126323223114014 1.01610946655273438 -0.104465164244174957
1.42332160472869873 0.947750449180603027 -0.161799460649490356
1.06809842586517334 0.948961257934570312 -0.110178306698799133
1.08945727348327637 0.876732945442199707 -0.192492067813873291
0.882866382598876953 1.01868927478790283 -0.182040631771087646
1.56950020790100098 1.00787675380706787 0.0913422107696533203
1.24187207221984863 1.08215987682342529 -0.0528144240379333496
1.4499962329864502 1.04656302928924561 -0.156693965196609497
1.33428597450256348 1.28442537784576416 -0.127170711755752563
1.44335389137268066 0.794057846069335938 -0.157639428973197937
1.23391151428222656 1.30203306674957275 -0.12919442355632782
1.08983361721038818 1.03177869319915771 -0.0165876001119613647
1.1828305721282959 1.25308418273925781 -0.036208759993314743
1.17388391494750977 1.29686224460601807 -0.128259792923927307
1.23368585109710693 1.19417369365692139 0.0155592858791351318
1.0953223705291748 0.937190413475036621 -0.0561511926352977753
1.28962612152099609 1.06732296943664551 0.0131616238504648209
1.47275865077972412 1.0780254602432251 -0.140481188893318176
1.24519658088684082 1.18458414077758789 0.0156886707991361618
1.442146897315979 0.965202033519744873 -0.162963882088661194
1.32447326183319092 0.992972910404205322 -0.0176620259881019592
1.33118200302124023 1.13523709774017334 0.00642080698162317276
1.39448976516723633 0.991378366947174072 -0.124687254428863525
1.12465429306030273 0.900523066520690918 -0.181922793388366699
1.14964461326599121 1.14058065414428711 0.0161729715764522552
1.32434701919555664 1.23045587539672852 -0.0851607769727706909
1.56503725051879883 1.12140655517578125 -0.129112794995307922
1.40335214138031006 0.928450286388397217 -0.168730452656745911
1.06954002380371094 0.949750959873199463 -0.168523639440536499
1.07157754898071289 0.958650290966033936 -0.103829361498355865
0.864292323589324951 1.08918046951293945 -0.155637741088867188
1.0207904577255249 1.08099055290222168 -0.154992863535881042
0.958007872104644775 1.0046466588973999 -0.154276520013809204
1.26760828495025635 1.03357517719268799 -0.0127168139442801476
1.40086138248443604 0.967878282070159912 -0.167226016521453857
1.05778396129608154 0.902959823608398438 -0.184177294373512268
1.42599451541900635 0.799432933330535889 -0.134607076644897461
1.5408862829208374 1.25109386444091797 -0.0676381215453147888
1.54208934307098389 1.20717883110046387 -0.037596631795167923
1.42122578620910645 1.01737391948699951 -0.153647676110267639
1.43252420425415039 1.18510055541992188 -0.13617841899394989
1.10681056976318359 0.913545072078704834 -0.181604191660881042
0.990198612213134766 0.981763541698455811 -0.160716280341148376
1.09451699256896973 1.05492782592773438 0.00323435594327747822
1.02276110649108887 1.08577394485473633 -0.0974776297807693481
0.972190558910369873 1.08913099765777588 -0.155009880661964417
1.03877425193786621 1.0093618631362915 -0.0696686878800392151
1.37587904930114746 1.18514418601989746 -0.102813355624675751
1.02582263946533203 1.11047983169555664 -0.155571311712265015
1.46135437488555908 1.07549667358398438 -0.164416730403900146
1.40579485893249512 1.18430554866790771 -0.131686210632324219
1.40221583843231201 1.2915198802947998 -0.131446525454521179
1.44600486755371094 1.01591193675994873 -0.159322455525398254
1.30389904975891113 1.15519988536834717 0.0081667434424161911
1.3954463005065918 1.22893667221069336 -0.12899470329284668
1.33402121067047119 1.20344686508178711 -0.113346830010414124
1.03732669353485107 1.18392407894134521 -0.156448483467102051
1.18768680095672607 1.2290571928024292 -0.0282734613865613937
1.0565955638885498 1.24900674819946289 -0.140540167689323425
1.24277818202972412 0.881488621234893799 -0.195162668824195862
1.09560251235961914 1.23562169075012207 -0.144820302724838257
0.872186362743377686 0.973569035530090332 -0.155279606580734253
0.853206753730773926 1.07365310192108154 -0.0551541000604629517
1.03752732276916504 0.998506724834442139 -0.168354764580726624
1.39775431156158447 0.879998862743377686 -0.188108116388320923
1.03617560863494873 1.00232720375061035 -0.166489705443382263
1.48114073276519775 0.886640846729278564 -0.15691705048084259
1.51230490207672119 1.26043510437011719 -0.133578315377235413
1.21848797798156738 1.2757946252822876 -0.116066321730613708
1.03037428855895996 1.02008545398712158 -0.166670948266983032
1.56636297702789307 1.17712867259979248 -0.050928160548210144
1.56278252601623535 0.971564769744873047 -0.121141180396080017
0.933862984180450439 1.1977088451385498 -0.157730191946029663
1.08638656139373779 0.914279460906982422 -0.183928400278091431
1.45432806015014648 1.03875374794006348 -0.156056433916091919
1.07439923286437988 1.19333040714263916 -0.0662599802017211914
1.28586053848266602 1.25995123386383057 -0.118137963116168976
1.07555830478668213 1.18065977096557617 -0.118131890892982483
1.0205768346786499 1.0988612174987793 -0.131029888987541199
1.01192045211791992 1.15515625476837158 -0.16034013032913208
1.09005844593048096 0.955986082553863525 -0.0546365343034267426
1.10511291027069092 1.22746896743774414 -0.142645418643951416
1.43598759174346924 0.92615962028503418 -0.157288819551467896
1.45858192443847656 1.11956882476806641 -0.138085439801216125
1.01147723197937012 1.19209814071655273 -0.151039049029350281
1.06443583965301514 0.952572524547576904 -0.177745074033737183
1.24160361289978027 1.24789130687713623 -0.101985104382038116
1.4430619478225708 0.983888685703277588 -0.165266633033752441
1.13286042213439941 1.24802017211914062 -0.101958572864532471
1.33909153938293457 1.0020521879196167 -0.0236876662820577621
1.13303983211517334 0.878511905670166016 -0.189321160316467285
1.39750838279724121 1.03998374938964844 -0.0636312663555145264
0.896868705749511719 0.928869009017944336 -0.169875860214233398
1.40998935699462891 1.33976149559020996 -0.118531897664070129
1.4610666036605835 0.841446459293365479 -0.186872497200965881
1.0088200569152832 1.23644518852233887 -0.150827735662460327
1.18475759029388428 1.0422976016998291 -0.0590863153338432312
1.39566969871520996 0.791295111179351807 -0.190462976694107056
1.55269479751586914 0.966084182262420654 -0.148456722497940063
1.34048771858215332 1.25642919540405273 -0.133844152092933655
1.05547833442687988 0.911343157291412354 -0.189241081476211548
1.1320418119430542 0.977842569351196289 -0.0162634886801242828
1.47361564636230469 0.944959521293640137 -0.175630003213882446
0.881376087665557861 0.919350326061248779 -0.0749265328049659729
1.58251726627349854 1.10645663738250732 -0.0688588619232177734
1.08568394184112549 1.17802572250366211 -0.0713192522525787354
0.98818129301071167 0.827670812606811523 -0.201951339840888977
1.55970275402069092 1.11248648166656494 -0.112392842769622803
1.00626420974731445 1.08699333667755127 -0.163566425442695618
1.06807506084442139 1.04304647445678711 -0.0340015031397342682
1.07410657405853271 1.13267421722412109 -0.046118319034576416
1.56701302528381348 1.02082979679107666 -0.13316740095615387
1.18784308433532715 1.03518486022949219 -0.0536289066076278687
1.31488406658172607 1.16609323024749756 -0.00140718126203864813
1.35489535331726074 1.24700665473937988 -0.142602071166038513
1.20759379863739014 1.27136492729187012 -0.103891603648662567
1.49999606609344482 1.2826836109161377 -0.0885347872972488403
1.19043922424316406 1.12915503978729248 0.0251473505049943924
1.40233790874481201 1.07139050960540771 -0.0670219659805297852
1.41002082824707031 1.08345794677734375 -0.0920023098587989807
1.4081110954284668 1.03819477558135986 -0.0932718813419342041
1.03299272060394287 1.1427532434463501 -0.11582057923078537
1.02575743198394775 1.03769528865814209 -0.134228482842445374
1.18019402027130127 1.0447009801864624 -0.0679616555571556091
1.12258064746856689 1.22116100788116455 -0.0492549091577529907
1.35240530967712402 0.909775137901306152 -0.182718962430953979
1.15701782703399658 1.01558220386505127 -0.000886928581167012453
1.19966506958007812 1.07751309871673584 -0.0761833861470222473
0.865583181381225586 1.07075822353363037 -0.152730256319046021
1.17521178722381592 0.865974962711334229 -0.186400994658470154
0.982984602451324463 1.03557324409484863 -0.164944738149642944
1.18424928188323975 1.38130092620849609 -0.131072402000427246
1.41183590888977051 1.15662693977355957 -0.13000914454460144
1.09738099575042725 0.881639301776885986 -0.190842300653457642
1.18234562873840332 1.2505723237991333 -0.0158076230436563492
1.22515273094177246 1.08160734176635742 -0.0663622245192527771
1.05244100093841553 0.898283600807189941 -0.200376212596893311
1.35856199264526367 1.2685009241104126 -0.123644433915615082
1.29716694355010986 0.858978092670440674 -0.19602145254611969
0.866584718227386475 0.980344533920288086 -0.0745065286755561829
1.25621581077575684 1.0488656759262085 -0.0345550104975700378
1.57783830165863037 1.03475630283355713 -0.11481708288192749
1.35557520389556885 1.44481122493743896 -0.114163897931575775
1.34747314453125 1.20828366279602051 -0.0767706558108329773
0.924962818622589111 1.28936553001403809 -0.111192896962165833
1.41155374050140381 1.0864030122756958 -0.11266038566827774
1.02409744262695312 1.07054042816162109 -0.147215187549591064
1.42103803157806396 0.943402528762817383 -0.164323240518569946
1.02726900577545166 1.04847800731658936 -0.0931795388460159302
1.055899977684021 1.05069375038146973 -0.0289392676204442978
1.14270436763763428 1.1212993860244751 0.00951747782528400421
1.50232076644897461 0.855277419090270996 -0.14278392493724823
1.2175058126449585 1.27854263782501221 -0.115254975855350494
0.96911168098449707 1.01397013664245605 -0.15771406888961792
1.47109138965606689 1.06198632717132568 -0.145416170358657837
1.50352752208709717 0.892020106315612793 -0.124055862426757812
1.34752440452575684 1.28759217262268066 -0.112878851592540741
1.08115744590759277 0.874732613563537598 -0.139445453882217407
1.08796310424804688 0.925128400325775146 -0.163483753800392151
1.58275496959686279 1.03641998767852783 -0.0891636237502098083
1.46403193473815918 1.01897943019866943 -0.136218518018722534
1.38089847564697266 1.15832889080047607 -0.104577645659446716
1.57894992828369141 1.00698435306549072 -0.126243650913238525
1.08068645000457764 0.955169200897216797 -0.0547491684556007385
1.36580860614776611 0.949735760688781738 -0.139072388410568237
1.0303109884262085 1.12957406044006348 -0.107519641518592834
1.22531974315643311 1.07179594039916992 -0.0687578395009040833
1.23657143115997314 0.883839190006256104 -0.165333390235900879
1.09680819511413574 1.23219633102416992 -0.128510773181915283
1.03394520282745361 1.01381111145019531 -0.122321173548698425
